# .PCD v0.7 - Point Cloud Data file format
VERSION 0.7
FIELDS x y z
SIZE 4 4 4
TYPE F F F
COUNT 1 1 1
WIDTH 162
HEIGHT 1
VIEWPOINT 0 0 0 1 0 0 0
POINTS 162
DATA ascii
1.843763 -0.18799999 0.70664078
1.8561356 -0.198 0.76115608
1.8466735 -0.23 0.70451272
1.8551365 -0.23999999 0.76119936
1.845588 -0.31299999 0.70255792
1.8620434 -0.32800001 0.75889808
1.8465003 -0.35600001 0.70051646
1.857048 -0.37099999 0.75911462
1.8444589 -0.398 0.69960403
1.8550067 -0.41499999 0.7582022
1.8424175 -0.44100001 0.69869155
1.8529652 -0.46000001 0.75728977
1.8624705 -0.479 0.81493217
1.8363798 -0.48199999 0.69795239
1.8479266 -0.50300002 0.75650722
1.8059955 -0.2 0.52810889
1.8140688 -0.198 0.57580405
1.8280497 -0.197 0.62124115
1.8381643 -0.2 0.66984874
1.81186 -0.241 0.52485186
1.8179784 -0.241 0.57363266
1.8330016 -0.242 0.62002558
1.8431163 -0.24600001 0.6686331
1.812729 -0.28200001 0.52181143
1.8178917 -0.28299999 0.57163453
1.826964 -0.285 0.61928636
1.8411182 -0.29100001 0.66871971
1.8036942 -0.32100001 0.52120209
1.8228004 -0.32600001 0.56941992
1.8239236 -0.32800001 0.6184172
1.8390768 -0.33700001 0.66780728
1.8095587 -0.36300001 0.51794505
1.8197166 -0.368 0.56755167
1.8238802 -0.373 0.61741817
1.8380777 -0.38299999 0.66785061
1.8074306 -0.40400001 0.5150345
1.8186309 -0.41100001 0.56559688
1.8218387 -0.417 0.61650574
1.8340383 -0.42899999 0.66702479
1.806345 -0.44600001 0.5130797
1.8145913 -0.454 0.56477106
1.8247494 -0.463 0.61437768
1.8329958 -0.47600001 0.66606903
1.796311 -0.48500001 0.5125137
1.8075546 -0.49599999 0.56407517
1.8187116 -0.50800002 0.61363846
1.8309544 -0.523 0.66515654
1.799135 -0.52899998 0.50838757
1.7580267 -0.198 0.29897141
1.7916858 -0.184 0.33654892
1.759895 -0.237 0.29588759
1.7669258 -0.222 0.34262699
1.7718719 -0.208 0.38745481
1.7867653 -0.199 0.43085051
1.7567679 -0.27599999 0.29302031
1.762843 -0.26199999 0.34080207
1.7796912 -0.25099999 0.38311207
1.7827258 -0.242 0.43002468
1.7497311 -0.31400001 0.29232442
1.7568052 -0.30199999 0.34006286
1.7706996 -0.29300001 0.38350186
1.7856796 -0.287 0.42889568
1.7606283 -0.34400001 0.33589339
1.7745659 -0.336 0.38033146
1.7875478 -0.33199999 0.42581189
1.7604984 -0.38600001 0.3328962
1.774436 -0.37900001 0.37733427
1.7835082 -0.37599999 0.42498606
1.7573713 -0.42699999 0.33002892
1.7673993 -0.421 0.37663835
1.7794254 -0.421 0.42316118
1.7519921 -0.47499999 0.2752105
1.763149 -0.47099999 0.32477376
1.7761309 -0.46799999 0.37025422
1.7842908 -0.46799999 0.41994745
1.7478226 -0.51499999 0.27138749
1.7530718 -0.51099998 0.32320875
1.7651412 -0.509 0.37073064
1.7742569 -0.51099998 0.41938147
1.7937243 -0.18099999 0.36048311
1.9675728 -0.192 0.26086044
1.7739162 -0.223 0.36534554
1.7652339 -0.214 0.32668528
1.7699201 -0.266 0.36551878
1.7595918 -0.205 0.28889421
1.7632356 -0.25600001 0.32677191
1.7668796 -0.31 0.36464962
1.7539065 -0.18799999 0.25010398
1.7506869 -0.244 0.29128209
1.7697469 -0.35499999 0.36152253
1.7499968 -0.227 0.25227538
1.7591962 -0.34099999 0.32594609
1.7637525 -0.398 0.36178237
1.7451315 -0.266 0.25548908
1.7616677 -0.44299999 0.35987088
1.7490845 -0.30700001 0.25431678
1.7590662 -0.428 0.3229489
1.7585406 -0.48800001 0.35700363
1.7480854 -0.347 0.25436011
1.7560257 -0.472 0.32207978
1.783084 -0.54100001 0.34593025
1.7451315 -0.38699999 0.25548908
1.7519429 -0.51499999 0.32025486
1.7411786 -0.42699999 0.25666142
1.7435635 -0.495 0.28858802
1.7450881 -0.46900001 0.25449002
1.7483857 -0.54000002 0.28437528
1.7440459 -0.51099998 0.25353429
1.8348325 -0.18000001 0.56989926
1.8277032 -0.21699999 0.61324865
1.8092092 -0.184 0.5329743
1.8169793 -0.221 0.57367599
1.8286589 -0.26199999 0.61220628
1.7995276 -0.184 0.49435738
1.8052564 -0.22499999 0.53414661
1.8209323 -0.266 0.57250369
1.8316129 -0.308 0.61107731
1.799571 -0.22499999 0.49535644
1.8112507 -0.26899999 0.53388673
1.817935 -0.30899999 0.57263362
1.8256185 -0.35299999 0.61133718
1.7996143 -0.266 0.4963555
1.810295 -0.31099999 0.5349291
1.821888 -0.354 0.57146132
1.8205799 -0.398 0.61055464
1.8026549 -0.30700001 0.49722463
1.8122498 -0.354 0.53384346
1.8208889 -0.39899999 0.57150459
1.8175393 -0.44400001 0.60968554
1.796747 -0.34799999 0.4994826
1.8082968 -0.39700001 0.5350157
1.8138955 -0.44299999 0.5718078
1.822448 -0.49200001 0.60747087
1.8017423 -0.38999999 0.49926606
1.8062986 -0.44 0.53510237
1.8118541 -0.48800001 0.57089531
1.7997875 -0.43200001 0.50035173
1.8062986 -0.484 0.53510237
1.80083 -0.47400001 0.50130749
1.7983495 -0.52700001 0.53644788
1.791925 -0.51599997 0.50369543
1.8548362 -0.18000001 0.73118424
1.8569584 -0.205 0.78013825
1.8388139 -0.19400001 0.68483466
1.8538806 -0.223 0.73222661
1.8550036 -0.249 0.78122389
1.8418545 -0.235 0.68570375
1.8629961 -0.29499999 0.78087747
1.8639953 -0.34 0.78083414
1.8429834 -0.31999999 0.68865764
1.8540106 -0.35299999 0.73522377
1.8560461 -0.384 0.78217965
1.8470663 -0.36300001 0.69048256
1.8540539 -0.398 0.7362228
1.8560461 -0.43000001 0.78217965
1.8461105 -0.405 0.69152492
1.8491019 -0.44100001 0.73743844
1.855047 -0.47600001 0.78222299
1.842201 -0.44800001 0.69369626
1.8431507 -0.48500001 0.73869735
1.8570451 -0.523 0.78213638
1.8352941 -0.49000001 0.69599754
